# .PCD v.7 - Point Cloud Data file format
VERSION .7
FIELDS x y z rgb
SIZE 4 4 4 4
TYPE F F F F
COUNT 1 1 1 1
WIDTH 1002
HEIGHT 1
VIEWPOINT 0 0 0 1 0 0 0
POINTS 1002
DATA ascii
136.550000 141.530000 -7.640000 10432343.000000
136.420000 141.550000 -7.640000 10432343.000000
136.370000 141.560000 -7.640000 10432343.000000
136.320000 141.560000 -7.650000 10432343.000000
136.210000 141.580000 -7.650000 10432343.000000
135.950000 141.610000 -7.660000 10432343.000000
135.890000 141.620000 -7.650000 10432343.000000
135.800000 141.630000 -7.670000 10432343.000000
135.720000 141.640000 -7.660000 10432343.000000
135.680000 141.640000 -7.670000 10432343.000000
135.660000 141.650000 -7.660000 10432343.000000
135.640000 141.650000 -7.670000 10432343.000000
135.620000 141.650000 -7.660000 10432343.000000
135.550000 141.660000 -7.700000 10432343.000000
139.470000 140.990000 -7.640000 10432343.000000
139.360000 141.010000 -7.640000 10432343.000000
138.940000 141.060000 -7.640000 10432343.000000
138.410000 141.130000 -7.640000 10432343.000000
138.250000 141.140000 -7.640000 10432343.000000
138.120000 141.160000 -7.640000 10432343.000000
137.850000 141.190000 -7.630000 10432343.000000
137.670000 141.220000 -7.630000 10432343.000000
137.620000 141.220000 -7.630000 10432343.000000
137.320000 141.260000 -7.640000 10432343.000000
137.110000 141.290000 -7.640000 10432343.000000
137.070000 141.290000 -7.640000 10432343.000000
136.780000 141.330000 -7.650000 10432343.000000
136.750000 141.330000 -7.650000 10432343.000000
136.680000 141.340000 -7.650000 10432343.000000
136.650000 141.340000 -7.660000 10432343.000000
136.620000 141.350000 -7.650000 10432343.000000
136.560000 141.360000 -7.660000 10432343.000000
136.350000 141.380000 -7.650000 10432343.000000
136.210000 141.400000 -7.670000 10432343.000000
136.110000 141.410000 -7.670000 10432343.000000
136.030000 141.420000 -7.660000 10432343.000000
136.010000 141.430000 -7.660000 10432343.000000
135.870000 141.440000 -7.660000 10432343.000000
135.750000 141.460000 -7.660000 10432343.000000
135.680000 141.470000 -7.680000 10432343.000000
135.600000 141.480000 -7.690000 10432343.000000
135.580000 141.480000 -7.680000 10432343.000000
135.560000 141.480000 -7.690000 10432343.000000
135.520000 141.490000 -7.680000 10432343.000000
135.480000 141.490000 -7.680000 10432343.000000
135.470000 141.490000 -7.680000 10432343.000000
140.500000 140.690000 -7.730000 10432343.000000
140.230000 140.720000 -7.690000 10432343.000000
139.850000 140.770000 -7.670000 10432343.000000
138.840000 140.890000 -7.650000 10432343.000000
138.740000 140.900000 -7.660000 10432343.000000
138.460000 140.940000 -7.650000 10432343.000000
138.220000 140.970000 -7.660000 10432343.000000
137.930000 141.010000 -7.660000 10432343.000000
137.710000 141.030000 -7.650000 10432343.000000
137.530000 141.060000 -7.650000 10432343.000000
137.420000 141.070000 -7.650000 10432343.000000
137.260000 141.090000 -7.650000 10432343.000000
137.180000 141.100000 -7.650000 10432343.000000
137.090000 141.110000 -7.660000 10432343.000000
136.910000 141.130000 -7.660000 10432343.000000
136.880000 141.140000 -7.660000 10432343.000000
136.760000 141.150000 -7.660000 10432343.000000
136.580000 141.180000 -7.660000 10432343.000000
136.460000 141.190000 -7.670000 10432343.000000
136.390000 141.200000 -7.670000 10432343.000000
136.370000 141.200000 -7.680000 10432343.000000
136.300000 141.210000 -7.670000 10432343.000000
136.280000 141.220000 -7.680000 10432343.000000
136.160000 141.230000 -7.680000 10432343.000000
136.110000 141.240000 -7.670000 10432343.000000
135.960000 141.260000 -7.690000 10432343.000000
135.930000 141.260000 -7.680000 10432343.000000
135.790000 141.280000 -7.680000 10432343.000000
135.770000 141.280000 -7.680000 10432343.000000
135.600000 141.300000 -7.690000 10432343.000000
135.290000 141.340000 -7.690000 10432343.000000
139.840000 140.590000 -7.700000 10432343.000000
139.670000 140.610000 -7.690000 10432343.000000
138.190000 140.790000 -7.680000 10432343.000000
137.650000 140.860000 -7.670000 10432343.000000
137.450000 140.890000 -7.670000 10432343.000000
137.120000 140.930000 -7.670000 10432343.000000
137.020000 140.940000 -7.660000 10432343.000000
136.840000 140.970000 -7.670000 10432343.000000
136.690000 140.990000 -7.680000 10432343.000000
136.600000 141.000000 -7.680000 10432343.000000
136.560000 141.000000 -7.680000 10432343.000000
135.970000 141.080000 -7.700000 10432343.000000
135.930000 141.080000 -7.690000 10432343.000000
135.810000 141.100000 -7.700000 10432343.000000
135.540000 141.130000 -7.710000 10432343.000000
135.430000 141.150000 -7.720000 10432343.000000
135.380000 141.150000 -7.700000 10432343.000000
135.350000 141.160000 -7.720000 10432343.000000
135.320000 141.160000 -7.720000 10432343.000000
135.280000 141.170000 -7.710000 10432343.000000
135.170000 141.180000 -7.720000 10432343.000000
135.150000 141.180000 -7.720000 10432343.000000
135.130000 141.190000 -7.720000 10432343.000000
134.960000 141.210000 -7.750000 10432343.000000
139.860000 140.400000 -7.730000 10432343.000000
139.180000 140.490000 -7.700000 10432343.000000
138.920000 140.520000 -7.700000 10432343.000000
138.770000 140.540000 -7.680000 10432343.000000
138.670000 140.550000 -7.690000 10432343.000000
138.560000 140.570000 -7.690000 10432343.000000
138.260000 140.610000 -7.690000 10432343.000000
138.170000 140.620000 -7.690000 10432343.000000
137.530000 140.700000 -7.690000 10432343.000000
137.380000 140.720000 -7.680000 10432343.000000
137.320000 140.730000 -7.680000 10432343.000000
137.260000 140.730000 -7.680000 10432343.000000
136.930000 140.780000 -7.680000 10432343.000000
136.780000 140.800000 -7.690000 10432343.000000
136.560000 140.820000 -7.690000 10432343.000000
136.520000 140.830000 -7.690000 10432343.000000
136.290000 140.860000 -7.700000 10432343.000000
135.740000 140.930000 -7.710000 10432343.000000
135.520000 140.960000 -7.720000 10432343.000000
135.470000 140.970000 -7.720000 10432343.000000
135.400000 140.970000 -7.730000 10432343.000000
135.250000 140.990000 -7.730000 10432343.000000
135.230000 141.000000 -7.730000 10432343.000000
135.150000 141.010000 -7.730000 10432343.000000
134.970000 141.030000 -7.740000 10432343.000000
134.950000 141.030000 -7.740000 10432343.000000
134.780000 141.060000 -7.770000 10432343.000000
139.240000 140.300000 -7.710000 10432343.000000
138.840000 140.350000 -7.710000 10432343.000000
138.700000 140.370000 -7.700000 10432343.000000
138.260000 140.430000 -7.710000 10432343.000000
137.970000 140.460000 -7.710000 10432343.000000
137.630000 140.510000 -7.710000 10432343.000000
137.400000 140.540000 -7.700000 10432343.000000
137.190000 140.570000 -7.700000 10432343.000000
136.780000 140.620000 -7.700000 10432343.000000
136.400000 140.670000 -7.700000 10432343.000000
136.320000 140.680000 -7.710000 10432343.000000
136.180000 140.700000 -7.720000 10432343.000000
135.990000 140.720000 -7.710000 10432343.000000
135.780000 140.750000 -7.730000 10432343.000000
135.690000 140.760000 -7.730000 10432343.000000
135.570000 140.780000 -7.720000 10432343.000000
135.370000 140.800000 -7.730000 10432343.000000
135.230000 140.820000 -7.740000 10432343.000000
135.160000 140.830000 -7.750000 10432343.000000
135.100000 140.840000 -7.740000 10432343.000000
134.990000 140.850000 -7.740000 10432343.000000
134.930000 140.860000 -7.750000 10432343.000000
134.650000 140.900000 -7.750000 10432343.000000
139.400000 140.100000 -7.740000 10432343.000000
138.650000 140.200000 -7.730000 10432343.000000
138.530000 140.210000 -7.730000 10432343.000000
138.390000 140.230000 -7.720000 10432343.000000
138.070000 140.270000 -7.730000 10432343.000000
137.790000 140.310000 -7.730000 10432343.000000
137.600000 140.330000 -7.730000 10432343.000000
137.440000 140.360000 -7.730000 10432343.000000
137.140000 140.390000 -7.720000 10432343.000000
136.990000 140.410000 -7.720000 10432343.000000
136.750000 140.440000 -7.720000 10432343.000000
136.540000 140.470000 -7.720000 10432343.000000
136.480000 140.480000 -7.710000 10432343.000000
136.010000 140.540000 -7.730000 10432343.000000
135.970000 140.550000 -7.730000 10432343.000000
135.900000 140.560000 -7.730000 10432343.000000
135.700000 140.580000 -7.740000 10432343.000000
135.610000 140.600000 -7.740000 10432343.000000
135.320000 140.630000 -7.750000 10432343.000000
135.230000 140.650000 -7.760000 10432343.000000
135.030000 140.670000 -7.760000 10432343.000000
134.980000 140.680000 -7.760000 10432343.000000
134.840000 140.700000 -7.770000 10432343.000000
134.790000 140.700000 -7.760000 10432343.000000
134.480000 140.740000 -7.760000 10432343.000000
134.380000 140.760000 -7.790000 10432343.000000
137.870000 140.120000 -7.750000 10432343.000000
137.680000 140.140000 -7.750000 10432343.000000
136.940000 140.240000 -7.740000 10432343.000000
136.200000 140.340000 -7.750000 10432343.000000
136.020000 140.360000 -7.750000 10432343.000000
135.900000 140.380000 -7.750000 10432343.000000
135.810000 140.390000 -7.750000 10432343.000000
135.450000 140.440000 -7.770000 10432343.000000
135.420000 140.440000 -7.770000 10432343.000000
135.270000 140.460000 -7.770000 10432343.000000
135.070000 140.490000 -7.770000 10432343.000000
135.030000 140.500000 -7.780000 10432343.000000
134.910000 140.510000 -7.780000 10432343.000000
134.840000 140.520000 -7.790000 10432343.000000
134.770000 140.530000 -7.780000 10432343.000000
134.580000 140.560000 -7.780000 10432343.000000
134.520000 140.560000 -7.790000 10432343.000000
134.480000 140.570000 -7.800000 10432343.000000
134.400000 140.580000 -7.800000 10432343.000000
134.380000 140.580000 -7.790000 10432343.000000
134.310000 140.590000 -7.780000 10432343.000000
134.250000 140.600000 -7.790000 10432343.000000
134.150000 140.610000 -7.820000 10432343.000000
138.650000 139.840000 -7.770000 10432343.000000
138.380000 139.870000 -7.770000 10432343.000000
137.990000 139.920000 -7.760000 10432343.000000
137.560000 139.980000 -7.760000 10432343.000000
136.880000 140.070000 -7.760000 10432343.000000
136.600000 140.110000 -7.760000 10432343.000000
136.530000 140.120000 -7.750000 10432343.000000
136.300000 140.150000 -7.750000 10432343.000000
136.000000 140.190000 -7.760000 10432343.000000
135.770000 140.220000 -7.760000 10432343.000000
135.590000 140.240000 -7.770000 10432343.000000
135.370000 140.270000 -7.780000 10432343.000000
135.160000 140.300000 -7.790000 10432343.000000
135.130000 140.310000 -7.790000 10432343.000000
135.010000 140.320000 -7.780000 10432343.000000
134.950000 140.330000 -7.780000 10432343.000000
134.800000 140.350000 -7.790000 10432343.000000
134.750000 140.360000 -7.780000 10432343.000000
134.640000 140.370000 -7.800000 10432343.000000
134.440000 140.400000 -7.800000 10432343.000000
134.420000 140.400000 -7.800000 10432343.000000
134.200000 140.430000 -7.810000 10432343.000000
134.070000 140.450000 -7.810000 10432343.000000
138.430000 139.680000 -7.780000 10432343.000000
138.170000 139.720000 -7.780000 10432343.000000
138.040000 139.740000 -7.780000 10432343.000000
137.570000 139.800000 -7.780000 10432343.000000
137.360000 139.830000 -7.780000 10432343.000000
136.540000 139.940000 -7.780000 10432343.000000
136.390000 139.960000 -7.770000 10432343.000000
136.330000 139.970000 -7.770000 10432343.000000
136.100000 140.000000 -7.780000 10432343.000000
135.940000 140.020000 -7.780000 10432343.000000
135.650000 140.060000 -7.780000 10432343.000000
135.450000 140.080000 -7.780000 10432343.000000
135.410000 140.090000 -7.780000 10432343.000000
135.380000 140.090000 -7.790000 10432343.000000
135.240000 140.110000 -7.790000 10432343.000000
134.880000 140.160000 -7.820000 10432343.000000
134.580000 140.200000 -7.810000 10432343.000000
134.540000 140.210000 -7.820000 10432343.000000
134.420000 140.220000 -7.810000 10432343.000000
134.390000 140.230000 -7.820000 10432343.000000
134.350000 140.230000 -7.820000 10432343.000000
134.330000 140.240000 -7.820000 10432343.000000
134.200000 140.250000 -7.810000 10432343.000000
134.060000 140.270000 -7.820000 10432343.000000
134.030000 140.280000 -7.830000 10432343.000000
133.790000 140.310000 -7.850000 10432343.000000
138.370000 139.510000 -7.790000 10432343.000000
138.070000 139.550000 -7.790000 10432343.000000
137.570000 139.620000 -7.790000 10432343.000000
137.250000 139.660000 -7.790000 10432343.000000
137.070000 139.690000 -7.800000 10432343.000000
136.630000 139.750000 -7.790000 10432343.000000
135.840000 139.850000 -7.790000 10432343.000000
135.420000 139.910000 -7.800000 10432343.000000
135.370000 139.920000 -7.800000 10432343.000000
135.340000 139.920000 -7.800000 10432343.000000
135.040000 139.960000 -7.810000 10432343.000000
135.000000 139.970000 -7.800000 10432343.000000
134.880000 139.980000 -7.820000 10432343.000000
134.850000 139.990000 -7.820000 10432343.000000
134.610000 140.020000 -7.810000 10432343.000000
134.580000 140.030000 -7.810000 10432343.000000
134.500000 140.040000 -7.820000 10432343.000000
134.400000 140.050000 -7.820000 10432343.000000
134.380000 140.050000 -7.820000 10432343.000000
134.330000 140.060000 -7.830000 10432343.000000
134.240000 140.070000 -7.830000 10432343.000000
134.200000 140.080000 -7.840000 10432343.000000
134.030000 140.100000 -7.840000 10432343.000000
133.990000 140.110000 -7.840000 10432343.000000
133.970000 140.110000 -7.850000 10432343.000000
133.890000 140.120000 -7.850000 10432343.000000
133.750000 140.140000 -7.850000 10432343.000000
138.480000 139.320000 -7.810000 10432343.000000
138.160000 139.360000 -7.810000 10432343.000000
137.880000 139.400000 -7.810000 10432343.000000
137.250000 139.480000 -7.810000 10432343.000000
137.150000 139.500000 -7.820000 10432343.000000
136.760000 139.550000 -7.820000 10432343.000000
136.060000 139.650000 -7.810000 10432343.000000
135.750000 139.690000 -7.810000 10432343.000000
135.590000 139.710000 -7.810000 10432343.000000
135.350000 139.740000 -7.820000 10432343.000000
135.300000 139.750000 -7.810000 10432343.000000
134.710000 139.830000 -7.840000 10432343.000000
134.310000 139.890000 -7.840000 10432343.000000
134.260000 139.890000 -7.850000 10432343.000000
134.210000 139.900000 -7.850000 10432343.000000
133.930000 139.940000 -7.850000 10432343.000000
133.750000 139.960000 -7.860000 10432343.000000
133.650000 139.980000 -7.870000 10432343.000000
133.550000 139.990000 -7.860000 10432343.000000
133.450000 140.000000 -7.870000 10432343.000000
133.420000 140.010000 -7.890000 10432343.000000
138.130000 139.180000 -7.830000 10432343.000000
137.560000 139.260000 -7.840000 10432343.000000
137.170000 139.320000 -7.830000 10432343.000000
136.480000 139.410000 -7.840000 10432343.000000
136.390000 139.420000 -7.840000 10432343.000000
136.310000 139.430000 -7.840000 10432343.000000
136.160000 139.450000 -7.840000 10432343.000000
135.550000 139.540000 -7.830000 10432343.000000
135.500000 139.540000 -7.830000 10432343.000000
135.440000 139.550000 -7.830000 10432343.000000
135.390000 139.560000 -7.830000 10432343.000000
135.100000 139.600000 -7.830000 10432343.000000
135.050000 139.610000 -7.830000 10432343.000000
134.900000 139.630000 -7.840000 10432343.000000
134.610000 139.670000 -7.850000 10432343.000000
134.540000 139.680000 -7.850000 10432343.000000
134.260000 139.710000 -7.850000 10432343.000000
134.210000 139.720000 -7.860000 10432343.000000
134.060000 139.740000 -7.870000 10432343.000000
133.820000 139.780000 -7.870000 10432343.000000
133.780000 139.780000 -7.880000 10432343.000000
133.710000 139.790000 -7.860000 10432343.000000
133.630000 139.800000 -7.880000 10432343.000000
133.550000 139.810000 -7.880000 10432343.000000
133.360000 139.840000 -7.880000 10432343.000000
133.270000 139.850000 -7.890000 10432343.000000
133.230000 139.860000 -7.880000 10432343.000000
133.190000 139.870000 -7.920000 10432343.000000
138.040000 139.020000 -7.840000 10432343.000000
137.730000 139.060000 -7.840000 10432343.000000
137.060000 139.150000 -7.850000 10432343.000000
136.850000 139.180000 -7.850000 10432343.000000
136.010000 139.300000 -7.850000 10432343.000000
135.860000 139.320000 -7.850000 10432343.000000
135.520000 139.360000 -7.840000 10432343.000000
135.460000 139.370000 -7.840000 10432343.000000
135.290000 139.400000 -7.850000 10432343.000000
135.230000 139.400000 -7.840000 10432343.000000
135.130000 139.420000 -7.850000 10432343.000000
134.990000 139.440000 -7.850000 10432343.000000
134.440000 139.510000 -7.860000 10432343.000000
134.220000 139.540000 -7.880000 10432343.000000
134.150000 139.550000 -7.870000 10432343.000000
134.140000 139.560000 -7.890000 10432343.000000
134.090000 139.560000 -7.860000 10432343.000000
134.040000 139.570000 -7.870000 10432343.000000
133.990000 139.580000 -7.880000 10432343.000000
133.710000 139.620000 -7.890000 10432343.000000
133.330000 139.670000 -7.900000 10432343.000000
133.250000 139.680000 -7.900000 10432343.000000
133.200000 139.690000 -7.910000 10432343.000000
133.050000 139.710000 -7.910000 10432343.000000
133.030000 139.710000 -7.910000 10432343.000000
133.020000 139.710000 -7.920000 10432343.000000
137.680000 138.890000 -7.860000 10432343.000000
136.990000 138.980000 -7.870000 10432343.000000
136.850000 139.000000 -7.860000 10432343.000000
135.590000 139.180000 -7.870000 10432343.000000
134.790000 139.290000 -7.870000 10432343.000000
134.380000 139.350000 -7.880000 10432343.000000
134.340000 139.350000 -7.880000 10432343.000000
134.050000 139.390000 -7.890000 10432343.000000
133.960000 139.400000 -7.890000 10432343.000000
133.840000 139.420000 -7.890000 10432343.000000
133.470000 139.470000 -7.910000 10432343.000000
133.380000 139.490000 -7.910000 10432343.000000
133.250000 139.500000 -7.920000 10432343.000000
133.090000 139.530000 -7.910000 10432343.000000
133.080000 139.530000 -7.930000 10432343.000000
132.920000 139.550000 -7.920000 10432343.000000
132.890000 139.550000 -7.930000 10432343.000000
137.820000 138.690000 -7.890000 10432343.000000
136.930000 138.810000 -7.900000 10432343.000000
136.560000 138.860000 -7.890000 10432343.000000
136.340000 138.890000 -7.900000 10432343.000000
136.150000 138.920000 -7.900000 10432343.000000
135.620000 138.990000 -7.900000 10432343.000000
135.530000 139.010000 -7.890000 10432343.000000
135.470000 139.020000 -7.890000 10432343.000000
134.950000 139.090000 -7.890000 10432343.000000
134.690000 139.120000 -7.890000 10432343.000000
134.590000 139.140000 -7.890000 10432343.000000
134.220000 139.190000 -7.900000 10432343.000000
134.140000 139.200000 -7.900000 10432343.000000
133.910000 139.230000 -7.910000 10432343.000000
133.800000 139.250000 -7.920000 10432343.000000
133.590000 139.280000 -7.920000 10432343.000000
133.440000 139.300000 -7.930000 10432343.000000
133.010000 139.360000 -7.930000 10432343.000000
132.960000 139.370000 -7.940000 10432343.000000
132.880000 139.380000 -7.940000 10432343.000000
132.780000 139.390000 -7.940000 10432343.000000
132.690000 139.410000 -7.950000 10432343.000000
132.570000 139.420000 -7.970000 10432343.000000
137.630000 138.530000 -7.910000 10432343.000000
137.460000 138.550000 -7.910000 10432343.000000
137.140000 138.600000 -7.910000 10432343.000000
137.000000 138.620000 -7.920000 10432343.000000
135.760000 138.800000 -7.920000 10432343.000000
135.670000 138.810000 -7.920000 10432343.000000
135.340000 138.850000 -7.910000 10432343.000000
135.270000 138.860000 -7.910000 10432343.000000
134.700000 138.940000 -7.910000 10432343.000000
134.640000 138.950000 -7.910000 10432343.000000
134.360000 138.990000 -7.920000 10432343.000000
134.220000 139.010000 -7.910000 10432343.000000
134.180000 139.020000 -7.920000 10432343.000000
134.140000 139.020000 -7.920000 10432343.000000
134.100000 139.030000 -7.920000 10432343.000000
134.020000 139.040000 -7.920000 10432343.000000
133.850000 139.070000 -7.930000 10432343.000000
133.780000 139.080000 -7.930000 10432343.000000
133.630000 139.100000 -7.940000 10432343.000000
133.440000 139.120000 -7.930000 10432343.000000
133.420000 139.130000 -7.940000 10432343.000000
133.270000 139.150000 -7.950000 10432343.000000
133.240000 139.150000 -7.950000 10432343.000000
133.170000 139.160000 -7.950000 10432343.000000
132.920000 139.200000 -7.950000 10432343.000000
132.900000 139.200000 -7.950000 10432343.000000
132.820000 139.210000 -7.960000 10432343.000000
132.720000 139.230000 -7.960000 10432343.000000
132.640000 139.240000 -7.960000 10432343.000000
132.510000 139.260000 -7.960000 10432343.000000
132.480000 139.260000 -7.970000 10432343.000000
132.460000 139.260000 -7.970000 10432343.000000
132.430000 139.270000 -7.980000 10432343.000000
132.410000 139.270000 -8.000000 10432343.000000
136.270000 138.540000 -7.930000 10432343.000000
136.050000 138.570000 -7.930000 10432343.000000
135.650000 138.630000 -7.940000 10432343.000000
134.610000 138.780000 -7.930000 10432343.000000
134.450000 138.800000 -7.930000 10432343.000000
134.200000 138.840000 -7.930000 10432343.000000
133.900000 138.880000 -7.940000 10432343.000000
133.860000 138.890000 -7.940000 10432343.000000
133.820000 138.890000 -7.930000 10432343.000000
133.790000 138.900000 -7.950000 10432343.000000
133.680000 138.910000 -7.950000 10432343.000000
133.430000 138.950000 -7.960000 10432343.000000
133.250000 138.970000 -7.960000 10432343.000000
133.200000 138.980000 -7.960000 10432343.000000
133.170000 138.990000 -7.960000 10432343.000000
132.900000 139.020000 -7.970000 10432343.000000
132.880000 139.030000 -7.970000 10432343.000000
132.810000 139.040000 -7.980000 10432343.000000
132.620000 139.070000 -7.980000 10432343.000000
132.600000 139.070000 -7.990000 10432343.000000
132.320000 139.110000 -7.990000 10432343.000000
132.300000 139.110000 -7.990000 10432343.000000
132.280000 139.110000 -7.980000 10432343.000000
135.950000 138.410000 -7.950000 10432343.000000
135.370000 138.490000 -7.960000 10432343.000000
135.030000 138.540000 -7.950000 10432343.000000
134.870000 138.560000 -7.950000 10432343.000000
134.530000 138.610000 -7.940000 10432343.000000
134.410000 138.630000 -7.950000 10432343.000000
134.250000 138.650000 -7.950000 10432343.000000
134.200000 138.660000 -7.950000 10432343.000000
134.140000 138.670000 -7.950000 10432343.000000
134.100000 138.670000 -7.950000 10432343.000000
133.910000 138.700000 -7.950000 10432343.000000
133.590000 138.750000 -7.960000 10432343.000000
133.420000 138.770000 -7.970000 10432343.000000
133.350000 138.780000 -7.970000 10432343.000000
133.120000 138.820000 -7.990000 10432343.000000
132.940000 138.840000 -7.980000 10432343.000000
132.870000 138.850000 -7.980000 10432343.000000
132.840000 138.860000 -7.980000 10432343.000000
132.680000 138.880000 -7.990000 10432343.000000
132.630000 138.890000 -7.990000 10432343.000000
132.480000 138.910000 -8.000000 10432343.000000
132.460000 138.910000 -7.990000 10432343.000000
132.440000 138.910000 -8.000000 10432343.000000
132.360000 138.930000 -8.000000 10432343.000000
132.300000 138.930000 -8.000000 10432343.000000
132.210000 138.950000 -8.010000 10432343.000000
132.110000 138.960000 -8.000000 10432343.000000
132.030000 138.980000 -8.020000 10432343.000000
136.410000 138.160000 -7.970000 10432343.000000
134.610000 138.420000 -7.970000 10432343.000000
134.160000 138.490000 -7.970000 10432343.000000
133.850000 138.530000 -7.970000 10432343.000000
133.710000 138.550000 -7.970000 10432343.000000
133.670000 138.560000 -7.970000 10432343.000000
133.500000 138.580000 -7.970000 10432343.000000
133.430000 138.590000 -7.980000 10432343.000000
133.320000 138.610000 -7.980000 10432343.000000
133.290000 138.610000 -7.980000 10432343.000000
133.130000 138.640000 -8.000000 10432343.000000
132.990000 138.660000 -7.990000 10432343.000000
132.910000 138.670000 -8.000000 10432343.000000
132.720000 138.700000 -8.000000 10432343.000000
132.580000 138.720000 -8.010000 10432343.000000
132.390000 138.750000 -8.010000 10432343.000000
132.340000 138.750000 -8.000000 10432343.000000
132.100000 138.790000 -8.020000 10432343.000000
132.030000 138.800000 -8.030000 10432343.000000
131.950000 138.810000 -8.020000 10432343.000000
136.520000 137.960000 -7.990000 10432343.000000
135.460000 138.120000 -7.990000 10432343.000000
135.370000 138.130000 -7.990000 10432343.000000
134.350000 138.280000 -7.990000 10432343.000000
133.970000 138.330000 -7.990000 10432343.000000
133.470000 138.410000 -7.990000 10432343.000000
133.400000 138.420000 -8.000000 10432343.000000
132.990000 138.480000 -8.010000 10432343.000000
132.860000 138.500000 -8.010000 10432343.000000
132.800000 138.510000 -8.010000 10432343.000000
132.710000 138.520000 -8.020000 10432343.000000
132.550000 138.540000 -8.020000 10432343.000000
132.300000 138.580000 -8.020000 10432343.000000
132.150000 138.600000 -8.030000 10432343.000000
132.010000 138.630000 -8.040000 10432343.000000
131.940000 138.630000 -8.030000 10432343.000000
131.920000 138.640000 -8.040000 10432343.000000
131.870000 138.650000 -8.040000 10432343.000000
131.810000 138.650000 -8.030000 10432343.000000
131.740000 138.670000 -8.040000 10432343.000000
131.630000 138.680000 -8.070000 10432343.000000
136.690000 137.750000 -8.010000 10432343.000000
135.780000 137.890000 -8.020000 10432343.000000
135.640000 137.910000 -8.020000 10432343.000000
134.880000 138.020000 -8.020000 10432343.000000
134.450000 138.090000 -8.010000 10432343.000000
134.160000 138.130000 -8.010000 10432343.000000
133.510000 138.220000 -8.010000 10432343.000000
133.410000 138.240000 -8.010000 10432343.000000
133.030000 138.290000 -8.020000 10432343.000000
132.960000 138.310000 -8.020000 10432343.000000
132.690000 138.350000 -8.030000 10432343.000000
132.570000 138.360000 -8.030000 10432343.000000
132.330000 138.400000 -8.040000 10432343.000000
132.130000 138.430000 -8.040000 10432343.000000
131.970000 138.450000 -8.050000 10432343.000000
131.900000 138.460000 -8.040000 10432343.000000
131.690000 138.500000 -8.060000 10432343.000000
131.650000 138.500000 -8.060000 10432343.000000
131.630000 138.510000 -8.070000 10432343.000000
131.570000 138.510000 -8.050000 10432343.000000
131.380000 138.540000 -8.090000 10432343.000000
136.470000 137.600000 -8.020000 10432343.000000
135.570000 137.740000 -8.030000 10432343.000000
135.170000 137.800000 -8.020000 10432343.000000
134.570000 137.890000 -8.020000 10432343.000000
133.120000 138.100000 -8.030000 10432343.000000
132.660000 138.170000 -8.040000 10432343.000000
132.620000 138.180000 -8.040000 10432343.000000
132.180000 138.250000 -8.050000 10432343.000000
132.120000 138.250000 -8.050000 10432343.000000
131.980000 138.280000 -8.060000 10432343.000000
131.950000 138.280000 -8.060000 10432343.000000
131.880000 138.290000 -8.060000 10432343.000000
131.770000 138.310000 -8.070000 10432343.000000
131.690000 138.320000 -8.070000 10432343.000000
131.370000 138.370000 -8.080000 10432343.000000
131.300000 138.380000 -8.080000 10432343.000000
135.340000 137.590000 -8.040000 10432343.000000
135.230000 137.610000 -8.050000 10432343.000000
134.470000 137.720000 -8.040000 10432343.000000
133.880000 137.810000 -8.040000 10432343.000000
133.820000 137.820000 -8.040000 10432343.000000
133.660000 137.840000 -8.040000 10432343.000000
133.480000 137.870000 -8.040000 10432343.000000
133.260000 137.910000 -8.040000 10432343.000000
133.200000 137.910000 -8.040000 10432343.000000
132.060000 138.090000 -8.070000 10432343.000000
132.020000 138.090000 -8.060000 10432343.000000
131.870000 138.120000 -8.070000 10432343.000000
131.780000 138.130000 -8.080000 10432343.000000
131.730000 138.140000 -8.080000 10432343.000000
131.640000 138.150000 -8.090000 10432343.000000
131.610000 138.160000 -8.070000 10432343.000000
131.310000 138.200000 -8.090000 10432343.000000
131.290000 138.200000 -8.100000 10432343.000000
131.190000 138.220000 -8.100000 10432343.000000
131.150000 138.230000 -8.090000 10432343.000000
131.120000 138.230000 -8.080000 10432343.000000
135.050000 137.450000 -8.070000 10432343.000000
134.920000 137.470000 -8.070000 10432343.000000
134.030000 137.610000 -8.080000 10432343.000000
133.700000 137.660000 -8.070000 10432343.000000
133.060000 137.760000 -8.060000 10432343.000000
132.640000 137.820000 -8.070000 10432343.000000
132.600000 137.830000 -8.070000 10432343.000000
132.560000 137.830000 -8.070000 10432343.000000
132.310000 137.870000 -8.090000 10432343.000000
131.980000 137.920000 -8.090000 10432343.000000
131.920000 137.930000 -8.100000 10432343.000000
131.800000 137.950000 -8.080000 10432343.000000
131.700000 137.970000 -8.090000 10432343.000000
131.490000 138.000000 -8.110000 10432343.000000
131.460000 138.000000 -8.100000 10432343.000000
131.330000 138.020000 -8.100000 10432343.000000
131.310000 138.030000 -8.100000 10432343.000000
131.150000 138.050000 -8.110000 10432343.000000
131.070000 138.060000 -8.110000 10432343.000000
131.020000 138.070000 -8.120000 10432343.000000
130.980000 138.080000 -8.110000 10432343.000000
130.810000 138.100000 -8.150000 10432343.000000
135.120000 137.260000 -8.090000 10432343.000000
134.850000 137.300000 -8.090000 10432343.000000
134.720000 137.320000 -8.080000 10432343.000000
134.490000 137.360000 -8.090000 10432343.000000
133.740000 137.470000 -8.090000 10432343.000000
133.580000 137.500000 -8.090000 10432343.000000
133.150000 137.560000 -8.080000 10432343.000000
132.570000 137.650000 -8.090000 10432343.000000
132.400000 137.680000 -8.090000 10432343.000000
132.210000 137.710000 -8.100000 10432343.000000
132.010000 137.740000 -8.110000 10432343.000000
131.870000 137.760000 -8.110000 10432343.000000
131.680000 137.790000 -8.100000 10432343.000000
131.030000 137.890000 -8.120000 10432343.000000
130.930000 137.910000 -8.130000 10432343.000000
130.570000 137.960000 -8.150000 10432343.000000
135.200000 137.070000 -8.100000 10432343.000000
134.400000 137.190000 -8.100000 10432343.000000
133.370000 137.350000 -8.100000 10432343.000000
133.070000 137.400000 -8.090000 10432343.000000
132.410000 137.500000 -8.100000 10432343.000000
131.760000 137.600000 -8.120000 10432343.000000
131.630000 137.620000 -8.120000 10432343.000000
131.300000 137.670000 -8.120000 10432343.000000
131.040000 137.710000 -8.130000 10432343.000000
130.990000 137.720000 -8.130000 10432343.000000
130.910000 137.730000 -8.140000 10432343.000000
130.670000 137.770000 -8.150000 10432343.000000
130.520000 137.800000 -8.140000 10432343.000000
130.490000 137.800000 -8.150000 10432343.000000
134.870000 136.940000 -8.120000 10432343.000000
134.710000 136.960000 -8.120000 10432343.000000
133.990000 137.070000 -8.120000 10432343.000000
133.600000 137.140000 -8.130000 10432343.000000
132.880000 137.250000 -8.110000 10432343.000000
132.270000 137.340000 -8.120000 10432343.000000
132.130000 137.370000 -8.120000 10432343.000000
131.630000 137.440000 -8.130000 10432343.000000
130.910000 137.560000 -8.150000 10432343.000000
130.890000 137.560000 -8.150000 10432343.000000
130.840000 137.570000 -8.160000 10432343.000000
130.780000 137.580000 -8.160000 10432343.000000
130.690000 137.590000 -8.160000 10432343.000000
130.570000 137.610000 -8.170000 10432343.000000
130.510000 137.620000 -8.160000 10432343.000000
130.290000 137.660000 -8.170000 10432343.000000
130.270000 137.660000 -8.180000 10432343.000000
130.240000 137.660000 -8.180000 10432343.000000
133.770000 136.930000 -8.130000 10432343.000000
132.760000 137.090000 -8.140000 10432343.000000
132.680000 137.100000 -8.130000 10432343.000000
132.170000 137.180000 -8.140000 10432343.000000
131.870000 137.230000 -8.130000 10432343.000000
131.710000 137.250000 -8.140000 10432343.000000
131.500000 137.290000 -8.150000 10432343.000000
131.400000 137.300000 -8.160000 10432343.000000
131.360000 137.310000 -8.150000 10432343.000000
131.150000 137.340000 -8.160000 10432343.000000
130.890000 137.380000 -8.150000 10432343.000000
130.760000 137.400000 -8.170000 10432343.000000
130.700000 137.410000 -8.160000 10432343.000000
130.610000 137.430000 -8.160000 10432343.000000
130.570000 137.430000 -8.170000 10432343.000000
130.480000 137.450000 -8.170000 10432343.000000
130.360000 137.470000 -8.170000 10432343.000000
130.270000 137.480000 -8.180000 10432343.000000
130.160000 137.500000 -8.180000 10432343.000000
130.070000 137.510000 -8.190000 10432343.000000
130.020000 137.520000 -8.210000 10432343.000000
134.630000 136.610000 -8.160000 10432343.000000
134.080000 136.700000 -8.170000 10432343.000000
133.910000 136.730000 -8.150000 10432343.000000
133.690000 136.760000 -8.150000 10432343.000000
132.930000 136.880000 -8.160000 10432343.000000
132.560000 136.940000 -8.160000 10432343.000000
132.350000 136.970000 -8.150000 10432343.000000
132.180000 137.000000 -8.150000 10432343.000000
132.120000 137.010000 -8.150000 10432343.000000
132.070000 137.020000 -8.160000 10432343.000000
131.910000 137.040000 -8.150000 10432343.000000
131.690000 137.080000 -8.160000 10432343.000000
131.600000 137.090000 -8.160000 10432343.000000
131.530000 137.110000 -8.170000 10432343.000000
131.380000 137.130000 -8.180000 10432343.000000
131.240000 137.150000 -8.180000 10432343.000000
131.200000 137.160000 -8.170000 10432343.000000
130.980000 137.190000 -8.180000 10432343.000000
130.710000 137.240000 -8.190000 10432343.000000
130.670000 137.240000 -8.180000 10432343.000000
130.560000 137.260000 -8.190000 10432343.000000
130.350000 137.290000 -8.190000 10432343.000000
130.250000 137.310000 -8.190000 10432343.000000
129.900000 137.360000 -8.210000 10432343.000000
129.840000 137.380000 -8.230000 10432343.000000
134.140000 136.510000 -8.180000 10432343.000000
133.400000 136.630000 -8.180000 10432343.000000
133.200000 136.660000 -8.180000 10432343.000000
132.230000 136.820000 -8.170000 10432343.000000
132.100000 136.840000 -8.170000 10432343.000000
131.930000 136.860000 -8.170000 10432343.000000
131.240000 136.970000 -8.180000 10432343.000000
131.200000 136.980000 -8.180000 10432343.000000
131.110000 137.000000 -8.190000 10432343.000000
130.960000 137.020000 -8.190000 10432343.000000
130.780000 137.050000 -8.200000 10432343.000000
130.680000 137.060000 -8.180000 10432343.000000
130.660000 137.070000 -8.190000 10432343.000000
130.500000 137.090000 -8.200000 10432343.000000
130.370000 137.110000 -8.190000 10432343.000000
130.340000 137.120000 -8.220000 10432343.000000
130.220000 137.140000 -8.200000 10432343.000000
129.690000 137.220000 -8.230000 10432343.000000
129.610000 137.240000 -8.260000 10432343.000000
133.790000 136.390000 -8.190000 10432343.000000
132.890000 136.530000 -8.190000 10432343.000000
132.630000 136.570000 -8.200000 10432343.000000
132.380000 136.610000 -8.190000 10432343.000000
132.090000 136.660000 -8.190000 10432343.000000
131.830000 136.700000 -8.180000 10432343.000000
131.560000 136.740000 -8.180000 10432343.000000
131.460000 136.760000 -8.190000 10432343.000000
131.370000 136.780000 -8.190000 10432343.000000
131.330000 136.780000 -8.190000 10432343.000000
130.940000 136.850000 -8.200000 10432343.000000
130.430000 136.930000 -8.210000 10432343.000000
130.350000 136.940000 -8.210000 10432343.000000
130.300000 136.950000 -8.210000 10432343.000000
130.220000 136.960000 -8.210000 10432343.000000
130.200000 136.960000 -8.210000 10432343.000000
130.060000 136.990000 -8.230000 10432343.000000
130.040000 136.990000 -8.230000 10432343.000000
130.000000 137.000000 -8.230000 10432343.000000
129.970000 137.000000 -8.220000 10432343.000000
129.830000 137.030000 -8.230000 10432343.000000
129.810000 137.030000 -8.230000 10432343.000000
129.790000 137.030000 -8.230000 10432343.000000
129.620000 137.060000 -8.240000 10432343.000000
129.440000 137.090000 -8.260000 10432343.000000
133.740000 136.210000 -8.210000 10432343.000000
133.480000 136.260000 -8.210000 10432343.000000
133.000000 136.330000 -8.210000 10432343.000000
132.510000 136.410000 -8.210000 10432343.000000
132.260000 136.450000 -8.210000 10432343.000000
131.750000 136.540000 -8.200000 10432343.000000
131.090000 136.640000 -8.210000 10432343.000000
130.880000 136.680000 -8.220000 10432343.000000
130.840000 136.680000 -8.220000 10432343.000000
130.570000 136.730000 -8.230000 10432343.000000
130.420000 136.750000 -8.240000 10432343.000000
130.270000 136.780000 -8.230000 10432343.000000
130.130000 136.800000 -8.230000 10432343.000000
130.060000 136.810000 -8.240000 10432343.000000
129.870000 136.840000 -8.250000 10432343.000000
129.730000 136.860000 -8.240000 10432343.000000
129.590000 136.890000 -8.250000 10432343.000000
129.320000 136.930000 -8.250000 10432343.000000
129.270000 136.940000 -8.270000 10432343.000000
131.840000 136.340000 -8.230000 10432343.000000
131.770000 136.360000 -8.230000 10432343.000000
131.560000 136.390000 -8.220000 10432343.000000
131.170000 136.450000 -8.230000 10432343.000000
131.110000 136.460000 -8.220000 10432343.000000
131.020000 136.480000 -8.230000 10432343.000000
130.980000 136.480000 -8.230000 10432343.000000
130.680000 136.530000 -8.230000 10432343.000000
130.540000 136.560000 -8.240000 10432343.000000
130.030000 136.640000 -8.240000 10432343.000000
129.710000 136.690000 -8.250000 10432343.000000
129.590000 136.710000 -8.280000 10432343.000000
129.540000 136.720000 -8.270000 10432343.000000
129.510000 136.730000 -8.260000 10432343.000000
129.490000 136.730000 -8.260000 10432343.000000
129.410000 136.740000 -8.260000 10432343.000000
129.330000 136.750000 -8.280000 10432343.000000
132.330000 136.080000 -8.260000 10432343.000000
131.440000 136.230000 -8.240000 10432343.000000
131.200000 136.270000 -8.250000 10432343.000000
130.940000 136.310000 -8.260000 10432343.000000
130.890000 136.320000 -8.260000 10432343.000000
130.840000 136.330000 -8.250000 10432343.000000
130.540000 136.380000 -8.260000 10432343.000000
130.060000 136.460000 -8.280000 10432343.000000
130.000000 136.470000 -8.280000 10432343.000000
129.940000 136.480000 -8.280000 10432343.000000
129.840000 136.490000 -8.270000 10432343.000000
129.660000 136.530000 -8.270000 10432343.000000
129.610000 136.530000 -8.280000 10432343.000000
129.510000 136.550000 -8.280000 10432343.000000
133.190000 135.760000 -8.270000 10432343.000000
132.140000 135.940000 -8.270000 10432343.000000
132.040000 135.950000 -8.270000 10432343.000000
131.960000 135.970000 -8.280000 10432343.000000
131.780000 136.000000 -8.270000 10432343.000000
131.460000 136.050000 -8.270000 10432343.000000
131.230000 136.090000 -8.250000 10432343.000000
130.890000 136.140000 -8.260000 10432343.000000
130.840000 136.150000 -8.270000 10432343.000000
130.450000 136.220000 -8.270000 10432343.000000
130.140000 136.270000 -8.270000 10432343.000000
129.800000 136.330000 -8.300000 10432343.000000
133.000000 135.610000 -8.290000 10432343.000000
132.340000 135.720000 -8.280000 10432343.000000
131.840000 135.810000 -8.280000 10432343.000000
130.800000 135.980000 -8.280000 10432343.000000
130.700000 136.000000 -8.290000 10432343.000000
130.170000 136.090000 -8.280000 10432343.000000
129.990000 136.120000 -8.300000 10432343.000000
133.300000 135.380000 -8.310000 10432343.000000
130.940000 135.780000 -8.310000 10432343.000000
130.790000 135.800000 -8.290000 10432343.000000
130.740000 135.810000 -8.300000 10432343.000000
132.820000 135.280000 -8.330000 10432343.000000
132.250000 135.380000 -8.330000 10432343.000000
132.130000 135.400000 -8.330000 10432343.000000
130.960000 135.600000 -8.320000 10432343.000000
130.600000 135.660000 -8.310000 10432343.000000
130.520000 135.670000 -8.310000 10432343.000000
131.470000 135.330000 -8.340000 10432343.000000
130.930000 135.420000 -8.340000 10432343.000000
130.840000 135.440000 -8.340000 10432343.000000
132.120000 135.040000 -8.360000 10432343.000000
132.400000 134.810000 -8.380000 10432343.000000
132.240000 134.840000 -8.380000 10432343.000000
131.420000 134.980000 -8.380000 10432343.000000
131.290000 135.000000 -8.370000 10432343.000000
132.360000 134.460000 -8.410000 10432343.000000
131.850000 134.550000 -8.410000 10432343.000000
158.990000 132.000000 3.760000 5665343.000000
158.680000 132.410000 5.000000 5665343.000000
158.720000 132.370000 5.610000 5665343.000000
158.730000 132.340000 6.220000 5665343.000000
158.940000 132.270000 7.250000 5665343.000000
158.290000 133.060000 -3.570000 5665343.000000
158.580000 132.650000 4.310000 5665343.000000
158.620000 132.620000 4.910000 5665343.000000
158.790000 132.580000 5.270000 5665343.000000
158.690000 132.550000 6.130000 5665343.000000
158.710000 132.520000 6.760000 5665343.000000
158.870000 132.480000 7.140000 5665343.000000
158.160000 133.320000 -4.090000 5665343.000000
158.030000 133.330000 -3.850000 5665343.000000
158.040000 133.310000 -3.340000 5665343.000000
158.210000 133.270000 -3.070000 5665343.000000
158.240000 133.240000 -2.560000 5665343.000000
158.120000 133.250000 -2.320000 5665343.000000
158.710000 132.780000 5.770000 5665343.000000
158.600000 132.760000 6.630000 5665343.000000
157.910000 133.580000 -4.360000 5665343.000000
158.080000 133.540000 -4.100000 5665343.000000
158.130000 133.490000 -3.100000 5665343.000000
158.030000 133.440000 -1.850000 5665343.000000
158.130000 133.350000 -0.290000 5665343.000000
158.170000 133.300000 0.760000 5665343.000000
158.500000 133.130000 3.300000 5665343.000000
158.390000 133.100000 4.110000 5665343.000000
158.590000 133.030000 5.050000 5665343.000000
158.610000 133.000000 5.650000 5665343.000000
158.530000 132.970000 6.510000 5665343.000000
158.690000 132.930000 6.890000 5665343.000000
157.990000 133.790000 -4.610000 5665343.000000
157.980000 133.770000 -4.110000 5665343.000000
157.830000 133.750000 -3.390000 5665343.000000
158.340000 133.410000 2.100000 5665343.000000
158.240000 133.370000 3.430000 5665343.000000
158.340000 133.270000 5.170000 5665343.000000
158.390000 133.230000 5.770000 5665343.000000
158.600000 133.150000 6.760000 5665343.000000
157.980000 133.880000 -2.150000 5665343.000000
157.880000 133.840000 -0.920000 5665343.000000
157.880000 133.810000 -0.410000 5665343.000000
157.980000 133.720000 1.150000 5665343.000000
158.120000 133.690000 1.460000 5665343.000000
158.210000 133.650000 2.010000 5665343.000000
158.130000 133.570000 3.890000 5665343.000000
158.450000 133.360000 7.210000 5665343.000000
157.710000 134.150000 -2.440000 5665343.000000
157.910000 134.060000 -1.180000 5665343.000000
157.980000 134.000000 -0.160000 5665343.000000
158.030000 133.910000 1.390000 5665343.000000
158.060000 133.790000 3.800000 5665343.000000
158.200000 133.750000 4.130000 5665343.000000
158.090000 133.760000 4.370000 5665343.000000
158.280000 133.690000 5.290000 5665343.000000
158.210000 133.660000 6.130000 5665343.000000
157.510000 134.490000 -4.400000 5665343.000000
157.780000 134.340000 -2.220000 5665343.000000
157.830000 134.280000 -1.230000 5665343.000000
157.670000 134.300000 -1.010000 5665343.000000
158.260000 133.880000 5.770000 5665343.000000
158.120000 133.890000 6.000000 5665343.000000
157.600000 134.700000 -4.640000 5665343.000000
157.680000 134.570000 -2.260000 5665343.000000
157.530000 134.580000 -2.040000 5665343.000000
157.720000 134.520000 -1.280000 5665343.000000
157.820000 134.430000 0.220000 5665343.000000
157.840000 134.370000 1.230000 5665343.000000
157.790000 134.320000 2.510000 5665343.000000
157.960000 134.280000 2.820000 5665343.000000
157.880000 134.220000 4.140000 5665343.000000
158.110000 134.150000 5.050000 5665343.000000
157.980000 134.130000 5.850000 5665343.000000
158.220000 134.040000 6.830000 5665343.000000
157.340000 134.920000 -3.960000 5665343.000000
157.550000 134.800000 -2.300000 5665343.000000
157.520000 134.700000 -0.140000 5665343.000000
157.560000 134.670000 0.360000 5665343.000000
157.930000 134.410000 4.350000 5665343.000000
157.990000 134.350000 5.490000 5665343.000000
157.500000 134.970000 -1.400000 5665343.000000
157.440000 134.920000 -0.210000 5665343.000000
157.590000 134.890000 0.070000 5665343.000000
157.500000 134.870000 0.780000 5665343.000000
157.720000 134.710000 3.130000 5665343.000000
157.800000 134.550000 6.140000 5665343.000000
157.090000 135.420000 -4.900000 5665343.000000
157.250000 135.380000 -4.670000 5665343.000000
157.100000 135.390000 -4.450000 5665343.000000
157.520000 135.080000 0.500000 5665343.000000
157.660000 134.950000 2.540000 5665343.000000
157.580000 134.900000 3.800000 5665343.000000
157.770000 134.820000 4.680000 5665343.000000
157.640000 134.830000 4.890000 5665343.000000
157.820000 134.790000 5.240000 5665343.000000
157.860000 134.720000 6.380000 5665343.000000
157.020000 135.630000 -4.910000 5665343.000000
157.120000 135.480000 -2.200000 5665343.000000
157.310000 135.410000 -1.480000 5665343.000000
157.170000 135.420000 -1.270000 5665343.000000
157.330000 135.380000 -1.010000 5665343.000000
157.280000 135.280000 1.120000 5665343.000000
157.530000 135.150000 2.940000 5665343.000000
157.500000 135.080000 4.220000 5665343.000000
157.520000 135.050000 4.760000 5665343.000000
157.600000 134.980000 5.880000 5665343.000000
157.110000 135.760000 -3.780000 5665343.000000
157.180000 135.520000 0.580000 5665343.000000
157.350000 135.480000 0.870000 5665343.000000
157.240000 135.460000 1.560000 5665343.000000
157.370000 135.300000 4.120000 5665343.000000
157.650000 135.160000 6.120000 5665343.000000
156.790000 136.070000 -4.890000 5665343.000000
157.050000 135.920000 -2.890000 5665343.000000
157.000000 135.820000 -0.870000 5665343.000000
157.040000 135.760000 0.060000 5665343.000000
157.230000 135.700000 0.810000 5665343.000000
157.090000 135.700000 1.010000 5665343.000000
157.250000 135.570000 3.000000 5665343.000000
157.420000 135.500000 3.830000 5665343.000000
157.310000 135.480000 4.560000 5665343.000000
157.330000 135.450000 5.090000 5665343.000000
157.480000 135.410000 5.420000 5665343.000000
157.530000 135.370000 5.990000 5665343.000000
156.690000 136.280000 -4.870000 5665343.000000
156.930000 136.140000 -2.900000 5665343.000000
156.960000 136.110000 -2.450000 5665343.000000
156.850000 136.090000 -1.800000 5665343.000000
156.950000 135.970000 0.020000 5665343.000000
157.170000 135.850000 1.720000 5665343.000000
157.100000 135.820000 2.420000 5665343.000000
157.300000 135.720000 3.740000 5665343.000000
157.320000 135.690000 4.250000 5665343.000000
157.370000 135.650000 4.790000 5665343.000000
156.760000 136.480000 -5.050000 5665343.000000
156.900000 136.130000 0.920000 5665343.000000
156.970000 136.090000 1.400000 5665343.000000
157.140000 136.000000 2.650000 5665343.000000
157.090000 135.940000 3.870000 5665343.000000
157.320000 135.830000 5.250000 5665343.000000
156.670000 136.690000 -5.040000 5665343.000000
156.990000 136.150000 3.770000 5665343.000000
157.150000 136.110000 4.080000 5665343.000000
157.050000 136.090000 4.800000 5665343.000000
157.220000 136.040000 5.130000 5665343.000000
157.250000 136.010000 5.670000 5665343.000000
157.400000 135.860000 7.950000 5665343.000000
156.440000 136.860000 -3.980000 5665343.000000
156.670000 136.610000 -0.090000 5665343.000000
156.700000 136.580000 0.360000 5665343.000000
156.900000 136.480000 1.550000 5665343.000000
157.000000 136.390000 3.000000 5665343.000000
157.090000 136.290000 4.520000 5665343.000000
156.480000 137.110000 -5.010000 5665343.000000
156.500000 137.040000 -3.770000 5665343.000000
156.380000 136.970000 -2.330000 5665343.000000
156.480000 136.930000 -1.900000 5665343.000000
156.770000 136.760000 0.550000 5665343.000000
156.790000 136.610000 3.100000 5665343.000000
157.050000 136.450000 5.440000 5665343.000000
156.920000 136.450000 5.640000 5665343.000000
156.980000 136.380000 6.730000 5665343.000000
157.280000 136.290000 7.710000 5665343.000000
156.380000 137.280000 -4.190000 5665343.000000
156.440000 137.220000 -3.360000 5665343.000000
156.440000 137.200000 -2.950000 5665343.000000
156.300000 137.210000 -2.760000 5665343.000000
156.340000 137.180000 -2.350000 5665343.000000
156.420000 137.120000 -1.500000 5665343.000000
156.450000 137.070000 -0.640000 5665343.000000
156.620000 137.030000 -0.390000 5665343.000000
156.680000 136.970000 0.500000 5665343.000000
156.740000 136.890000 1.870000 5665343.000000
156.810000 136.830000 2.820000 5665343.000000
156.710000 136.800000 3.490000 5665343.000000
156.960000 136.660000 5.330000 5665343.000000
156.160000 137.520000 -4.390000 5665343.000000
